# .PCD v0.7 - Point Cloud Data file format
VERSION 0.7
FIELDS x y z
SIZE 4 4 4
TYPE F F F
COUNT 1 1 1
WIDTH 1565
HEIGHT 1
VIEWPOINT 0 0 0 1 0 0 0
POINTS 1565
DATA ascii
-1.9500099 0.83336103 -0.450753
-15.1914 6.4922199 2.71422
-1.08619 0.464194 -0.222553
-14.9391 6.3843999 3.06093
-1.37909 0.59449899 -0.89062202
-1.0674599 0.460161 -0.19097801
-1.45868 0.628811 -0.89248699
-1.01668 0.43827099 -0.155596
-1.52272 0.65641499 -0.88166797
-1.0033 0.43250501 -0.127766
-1.52797 0.65868002 -0.83576101
-0.974684 0.420169 -0.099022798
-1.58534 0.683411 -0.81715798
-1.0204999 0.43992001 -0.077708699
-1.64595 0.70954102 -0.79801702
-0.93749201 0.404136 -0.047608301
-1.54389 0.66554302 -0.702241
-0.94376701 0.40684101 -0.0238607
-1.1394 0.49117401 -0.48449999
-1.2838 0.55342102 0
-1.108 0.47763801 -0.439154
-0.94560301 0.40763199 0.023907101
-1.1101 0.478544 -0.40846899
-0.99069601 0.42707101 0.050310101
-1.21149 0.52225202 -0.411663
-1.0223401 0.44071001 0.077848203
-1.32587 0.57155699 -0.41400701
-0.99479997 0.42884001 0.101066
-1.34144 0.57827097 -0.38240999
-1.19849 0.51664698 0.152622
-1.7496099 0.75422299 -0.451435
-0.98030198 0.42258999 0.150029
-2.1036799 0.90685803 -0.486929
-15.18 6.5438199 2.7158401
-1.0793101 0.46527001 -0.221442
-14.919 6.4313002 3.06093
-1.37595 0.597422 -0.88960201
-1.05539 0.45823801 -0.189033
-1.44423 0.62707198 -0.88464898
-0.97737598 0.42436701 -0.14974999
-1.5226099 0.66110301 -0.88260698
-0.99852198 0.433548 -0.12730099
-1.56558 0.67976099 -0.857306
-0.920609 0.399719 -0.093635097
-1.57857 0.685399 -0.81459099
-1.02118 0.443385 -0.077848203
-1.63068 0.70802599 -0.79150999
-0.92726803 0.40261099 -0.047142401
-1.5319901 0.66517198 -0.69761598
-0.96837503 0.420459 -0.0245106
-1.11419 0.48376799 -0.474316
-1.3006901 0.56474501 0
-1.10502 0.47978899 -0.43847001
-0.97754502 0.42444 0.0247427
-1.09668 0.47616699 -0.403988
-0.98591 0.42807201 0.0501238
-1.20837 0.524661 -0.41106701
-1.01569 0.441001 0.077429697
-1.36845 0.59416801 -0.427789
-0.99732703 0.433029 0.101438
-1.33992 0.58178103 -0.38240999
-1.1698 0.50791597 0.14913701
-1.83688 0.79755503 -0.474491
-0.98464298 0.427522 0.15086401
-2.1371901 0.92794597 -0.49524599
-15.1682 6.5858998 2.71682
-1.08349 0.470442 -0.222553
-14.9147 6.4758201 3.06353
-1.3789999 0.60333103 -0.89266199
-1.05049 0.45960101 -0.188384
-1.44567 0.63249999 -0.88660902
-0.98344499 0.43026999 -0.15086401
-1.5207601 0.66535199 -0.88260698
-0.96454901 0.422003 -0.12312
-1.57514 0.68914402 -0.86359
-0.91584098 0.40069199 -0.093263499
-1.55181 0.678936 -0.80175602
-1.0309 0.451033 -0.078685299
-1.622 0.709647 -0.78825599
-0.91698903 0.40119401 -0.046676598
-1.53012 0.66944802 -0.69761598
-0.99101102 0.43358001 -0.0251141
-1.09918 0.480903 -0.46849599
-1.25879 0.55073899 0
-1.09507 0.47910601 -0.43505001
-1.13756 0.497695 0.028827799
-1.1075 0.484543 -0.40846899
-0.98654097 0.431624 0.050216898
-1.20865 0.528799 -0.411663
-1.0108 0.44223699 0.077150702
-1.97797 0.86538601 -0.61908102
-1.01071 0.44219801 0.102924
-1.3507 0.590949 -0.38595501
-1.18112 0.51675397 0.150764
-1.81503 0.79409999 -0.469419
-0.98707402 0.43185699 0.15142
-2.09516 0.916659 -0.48609799
-15.1624 6.63376 2.71909
-1.10018 0.48134401 -0.226256
-14.9002 6.5190201 3.06427
-1.37238 0.60557699 -0.88960201
-1.04723 0.46210301 -0.18806
-1.44368 0.63703901 -0.88660902
-1.00927 0.445351 -0.155039
-1.51705 0.66941398 -0.88166797
-0.95231402 0.420219 -0.121726
-1.57787 0.69625401 -0.866283
-0.90364599 0.39874399 -0.092148803
-1.5199 0.670672 -0.78635401
-1.03496 0.45668599 -0.079103798
-1.58968 0.70146298 -0.77361298
-0.91206801 0.40246001 -0.0464903
-1.54996 0.68393701 -0.70763701
-1.02257 0.45122099 -0.0259497
-1.08232 0.477586 -0.46194899
-1.09012 0.48102701 -0.43368199
-1.20184 0.530325 0.030499
-1.10423 0.48725599 -0.40782899
-0.99066299 0.437141 0.050496399
-1.20349 0.53105199 -0.41047099
-1.00393 0.442994 0.076732099
-1.29807 0.57278597 -0.40684101
-1.01296 0.44697899 0.103296
-1.35061 0.59597099 -0.386462
-1.17222 0.51725501 0.14983401
-1.5312099 0.67566502 -0.39656201
-1.00383 0.44295201 0.154204
-2.0922699 0.92323703 -0.48609799
-15.1578 6.68854 2.7219999
-1.08788 0.480037 -0.224034
-14.885 6.5681801 3.0653801
-1.36754 0.60800999 -0.88756102
-1.04774 0.46582699 -0.188384
-1.43871 0.639651 -0.88464898
-1.50388 0.66862601 -0.87509501
-0.95113701 0.42287701 -0.121726
-1.58246 0.70356202 -0.869874
-0.92072499 0.409356 -0.094006702
-1.52132 0.67638302 -0.78806502
-1.03915 0.462006 -0.079522401
-1.5827 0.70367301 -0.771173
-0.910941 0.40500599 -0.0464903
-1.55985 0.69351101 -0.71303201
-1.05419 0.468696 -0.026785299
-1.07077 0.47606501 -0.45758399
-1.12392 0.49969801 0
-1.10251 0.49017701 -0.439154
-1.20401 0.53530401 0.030591801
-1.11326 0.49495599 -0.41167
-0.99491501 0.442341 0.0507759
-1.22817 0.54604501 -0.41940799
-1.0118001 0.449848 0.077429697
-1.24727 0.55453902 -0.39140499
-1.01534 0.451424 0.103667
-1.45855 0.64847398 -0.41786501
-1.10905 0.49308801 0.141936
-1.38706 0.61668801 -0.35967201
-1.0496401 0.46667299 0.161441
-2.1022 0.93463898 -0.48900801
-15.1426 6.73245 2.7226501
-1.0775501 0.479081 -0.222183
-14.8756 6.6137099 3.06723
-1.36426 0.61112201 -0.88654101
-1.0482399 0.469558 -0.18870801
-1.44487 0.64723003 -0.889548
-1.06822 0.47850901 -0.16450299
-1.50684 0.67498797 -0.87791198
-0.95176601 0.42634299 -0.121958
-1.5919 0.71309203 -0.876158
-0.92321301 0.413553 -0.094378203
-1.55407 0.69614702 -0.80603403
-1.11797 0.50079399 -0.085660897
-1.59074 0.71257102 -0.77605402
-0.90251303 0.40428099 -0.0461176
-1.53264 0.68654698 -0.70147002
-1.0766 0.48226401 -0.027388699
-1.06093 0.475245 -0.45394599
-1.0987999 0.49220499 0
-1.12515 0.50401002 -0.44872999
-1.20068 0.53784698 0.0305454
-1.13608 0.50890702 -0.420634
-0.99914598 0.44756699 0.051055402
-1.23535 0.55337501 -0.42238599
-1.01782 0.45593399 0.077987701
-1.00863 0.45181501 0.10311
-1.90523 0.85344797 -0.54651701
-1.04422 0.46775901 0.13380601
-1.38178 0.61896801 -0.35874999
-1.0628 0.47608 0.16366801
-2.12993 0.95410103 -0.496077
-15.1364 6.7803502 2.72492
-1.09953 0.492533 -0.226996
-14.8768 6.6640601 3.0713
-1.36726 0.61705297 -0.88960201
-1.0469199 0.47248301 -0.18870801
-1.4446501 0.65197998 -0.89052701
-1.03258 0.46601099 -0.159214
-1.50495 0.67919302 -0.87791198
-0.94695002 0.42736501 -0.121494
-1.58828 0.71679997 -0.87526
-0.96198601 0.43415099 -0.098465502
-1.58013 0.713126 -0.82058001
-1.0929199 0.49324399 -0.083847299
-1.56709 0.70723999 -0.76547801
-0.903202 0.407621 -0.046210799
-1.5054899 0.67943698 -0.68990701
-1.07707 0.48609099 -0.0274352
-1.0579 0.47743899 -0.453219
-1.0755399 0.48539901 0
-1.12888 0.50946897 -0.45078301
-1.201 0.54202002 0.030591801
-1.13811 0.51363599 -0.42191401
-1.02703 0.463505 0.052546099
-1.23206 0.55603701 -0.42179099
-0.98745102 0.44564301 0.075755499
-1.27395 0.57494098 -0.40077701
-1.03096 0.46527901 0.105525
-1.95222 0.881051 -0.56069899
-1.00851 0.45514801 0.129392
-1.39069 0.62762702 -0.36151701
-1.05063 0.47415799 0.16199701
-2.09694 0.946365 -0.48900801
-1.9859101 0.89625698 0.35796201
-4.1041698 1.85224 -0.84836698
-1.00499 0.45355999 0.20774101
-1.36385 0.62039399 -0.88858199
-1.0455199 0.47558701 -0.18870801
-1.43636 0.65337503 -0.88660902
-1.03119 0.46907201 -0.159214
-1.50614 0.68511802 -0.87979001
-0.94025302 0.42770499 -0.120797
-1.5747499 0.71632898 -0.868976
-1.04589 0.475757 -0.107197
-1.57143 0.71481699 -0.81715798
-1.08419 0.49318099 -0.083289199
-1.53838 0.69978201 -0.75246298
-0.907444 0.412781 -0.0464903
-1.50682 0.68542898 -0.69144899
-1.06653 0.485145 -0.0272031
-1.0513999 0.47826201 -0.45103601
-1.05953 0.48196301 0
-1.12394 0.51125997 -0.44941401
-1.19029 0.54144198 0.0303597
-1.13658 0.51701099 -0.42191401
-1.10384 0.50212002 0.056552298
-1.2060699 0.54862303 -0.41345
-0.95706701 0.43535399 0.073523298
-1.27223 0.57871801 -0.40077701
-1.03864 0.472458 0.106454
-1.83512 0.83476597 -0.527776
-1.05778 0.48116899 0.135896
-1.97163 0.89686102 -0.51322502
-1.0149699 0.46169201 0.156709
-2.05317 0.93395197 -0.479444
-15.1474 6.8902998 2.734
-4.0897102 1.86034 -0.846515
-0.98038501 0.445961 0.20292699
-1.36357 0.62515497 -0.88960201
-1.04948 0.48115501 -0.18968099
-1.44075 0.660541 -0.89052701
-1.0585999 0.48533601 -0.16366801
-1.49929 0.68737602 -0.87697297
-0.94620299 0.43380499 -0.121726
-1.571 0.720254 -0.86807799
-1.09697 0.50292498 -0.112585
-1.56602 0.71797001 -0.81544602
-1.5379601 0.70510501 -0.75327599
-0.942536 0.43212399 -0.048353601
-1.53834 0.70528001 -0.70686603
-1.06145 0.48664099 -0.0271102
-1.05844 0.48526201 -0.45467401
-1.08173 0.49594101 0
-1.119 0.513026 -0.448046
-1.19776 0.549137 0.030591801
-1.13676 0.52117097 -0.42255399
-1.23311 0.565341 0.063260302
-1.19576 0.54822099 -0.41047099
-0.96665299 0.44318101 0.0743604
-1.24779 0.572074 -0.39361
-1.04085 0.477198 0.106826
-1.28918 0.591048 -0.37126699
-1.09427 0.50168997 0.140775
-2.05741 0.94326001 -0.53628099
-1.00819 0.46222499 0.155874
-2.05039 0.94003999 -0.479444
-4.0966802 1.8782001 -0.84910798
-0.98620403 0.452144 0.204408
-1.36338 0.629682 -0.89062202
-1.04634 0.48325601 -0.189357
-1.44207 0.66602403 -0.89248699
-1.08961 0.50323802 -0.168678
-1.5069799 0.69600302 -0.88260698
-0.96121901 0.44394201 -0.123817
-1.53491 0.70890099 -0.849226
-1.11183 0.51350099 -0.114257
-1.5672899 0.72385597 -0.81715798
-1.00888 0.46595499 -0.077708699
-1.5426199 0.71246099 -0.75652999
-0.99573803 0.459885 -0.051148601
-1.56652 0.72350103 -0.72074097
-1.06734 0.49295601 -0.027295901
-1.06385 0.49134001 -0.45758399
-1.10939 0.51237702 0
-1.11756 0.51614898 -0.448046
-1.22527 0.56589401 0.031334601
-1.1439 0.52831501 -0.42575601
-1.24603 0.57548398 0.064005598
-1.19596 0.55235898 -0.41106701
-0.97627902 0.45089799 0.075197503
-1.04313 0.48177299 0.107197
-1.2857701 0.593835 -0.37075999
-1.09287 0.50474399 0.140775
-2.0583 0.95063299 -0.53720301
-1.01948 0.47085199 0.157822
-2.0548601 0.94904298 -0.48110801
-0.99975801 0.461741 0.18092699
-4.0878501 1.88799 -0.84836698
-0.98493803 0.45489699 0.204408
-1.36151 0.63372397 -0.89062202
-1.05027 0.488857 -0.190329
-1.4306 0.66588497 -0.88660902
-1.13659 0.52903402 -0.176193
-1.50971 0.70270598 -0.885423
-0.97070301 0.451821 -0.12521
-1.48095 0.689318 -0.82050002
-1.0976599 0.51091498 -0.112957
-1.55858 0.72545099 -0.81373501
-0.95684898 0.445373 -0.073802397
-1.567 0.72937101 -0.76954597
-1.01792 0.47379699 -0.052359801
-1.5459599 0.71957898 -0.71226197
-1.06406 0.49527699 -0.0272495
-1.07421 0.49999699 -0.46267599
-1.08611 0.50553799 0
-1.12284 0.52263498 -0.45078301
-1.20546 0.56108898 0.0308704
-1.15092 0.53570497 -0.42895699
-1.2479399 0.58086401 0.064191997
-1.18739 0.55268198 -0.40868399
-0.97131902 0.452108 0.074918397
-1.2148499 0.56546003 -0.384238
-1.02003 0.47478199 0.104968
-1.28049 0.59601402 -0.36974701
-1.12918 0.52558798 0.14565299
-2.05018 0.95427197 -0.53582001
-1.02167 0.475546 0.158379
-2.04494 0.95183301 -0.479444
-1.00196 0.466371 0.181575
-4.0804501 1.89928 -0.84799701
-0.98358399 0.45781699 0.204408
-1.3611799 0.63849199 -0.89164197
-1.04703 0.491133 -0.190005
-1.43336 0.67234802 -0.889548
-1.13501 0.53240401 -0.176193
-1.5060199 0.706433 -0.88448399
-0.94238102 0.442045 -0.121726
-1.46595 0.68763798 -0.81331801
-1.02222 0.47949699 -0.105339
-1.56133 0.73237598 -0.816302
-0.92300999 0.43295899 -0.071291097
-1.5747499 0.73867297 -0.774427
-1.03097 0.48360199 -0.053105101
-1.55217 0.728082 -0.71611601
-1.05716 0.49588501 -0.0271102
-1.07609 0.50476497 -0.464131
-1.10633 0.518951 0
-1.1161799 0.52357 -0.44872999
-1.1748199 0.55107802 0.0301276
-1.15619 0.54233599 -0.43151799
-1.09971 0.51584202 0.056645501
-1.1892101 0.55782402 -0.40987599
-0.95371699 0.44736299 0.073662803
-1.20446 0.56497997 -0.38148201
-1.00239 0.470195 0.103296
-1.27872 0.59981102 -0.36974701
-1.12043 0.52556199 0.144724
-2.0332401 0.95373899 -0.53213102
-1.03102 0.48362201 0.16004901
-2.0739901 0.97285098 -0.486929
-1.02202 0.479399 0.18546601
-4.0819101 1.91471 -0.84947801
-1.00713 0.47241801 0.209592
-1.3515 0.638852 -0.88654101
-1.0527 0.49761099 -0.191302
-1.43608 0.67883301 -0.89248699
-1.11015 0.52476603 -0.172575
-1.50072 0.70938897 -0.88260698
-0.93028998 0.43974599 -0.120332
-1.51399 0.71566099 -0.84114701
-1.55915 0.737005 -0.816302
-0.91811401 0.43399 -0.071012102
-1.5180399 0.71757501 -0.74758202
-1.0295399 0.48665899 -0.053105101
-1.62175 0.76659697 -0.74926198
-1.05749 0.499874 -0.027156601
-1.07627 0.50875098 -0.46485901
-1.09575 0.51795697 0
-1.10783 0.52366698 -0.44599399
-1.16234 0.54943401 0.029849101
-1.15457 0.54576403 -0.43151799
-1.3365901 0.63180298 0.068943501
-1.19963 0.56706101 -0.41404599
-0.94156301 0.44507501 0.072825797
-1.2079901 0.571015 -0.383136
-0.993792 0.46976301 0.102553
-1.28918 0.60939002 -0.37329301
-1.09911 0.51954502 0.142168
-2.0532801 0.97057998 -0.53812498
-1.05644 0.499374 0.164224
-2.0834701 0.98485202 -0.48984
-1.01345 0.479056 0.18416899
-4.0708799 1.9243 -0.84836698
-14.798 6.9949999 3.08389
-1.35593 0.64558101 -0.89062202
-1.05487 0.50224501 -0.19195101
-1.43418 0.682841 -0.89248699
-1.0908 0.51934999 -0.169791
-1.49395 0.711299 -0.87979001
-0.92905903 0.44234201 -0.120332
-1.51683 0.72219098 -0.84384
-0.922355 0.43915001 -0.095307097
-1.55382 0.739802 -0.81459099
-0.909693 0.43312201 -0.070454001
-1.53748 0.73202199 -0.75815701
-1.03539 0.49296701 -0.053477801
-1.70625 0.81237602 -0.78934598
-1.04707 0.49852699 -0.0269245
-1.07148 0.510153 -0.463404
-1.09249 0.52015603 0
-1.11654 0.53160602 -0.45009899
-1.1246901 0.535487 0.028920701
-1.1461999 0.54572803 -0.42895699
-1.57833 0.75147498 0.081520997
-1.1963201 0.56958801 -0.41345
-0.93491298 0.44512901 0.072407201
-1.21507 0.57851899 -0.385892
-0.99427402 0.47339201 0.102738
-1.2962 0.61714602 -0.37582499
-1.08868 0.51834297 0.14100701
-2.06989 0.98551202 -0.54319799
-1.73992 0.82840699 0.27083099
-2.08248 0.99150801 -0.49025601
-1.81039 0.86196202 0.329429
-4.0672698 1.9365 -0.848737
-14.8122 7.05235 3.09093
-1.35412 0.64936501 -0.89062202
-1.0623699 0.50945598 -0.193572
-1.42755 0.684582 -0.889548
-1.07506 0.515544 -0.167564
-1.48719 0.71317798 -0.87697297
-0.92423701 0.44321701 -0.119868
-1.49708 0.71792299 -0.833965
-0.91394299 0.43827999 -0.094563998
-1.5762 0.75586301 -0.82742602
-0.915676 0.43911099 -0.071012102
-1.5552 0.74579298 -0.767919
-1.04301 0.50017601 -0.053943601
-1.67568 0.803572 -0.77624202
-1.05288 0.50490803 -0.0271102
-1.07005 0.513143 -0.463404
-1.10488 0.52984601 -0.44599399
-1.10156 0.52825099 0.0283636
-1.16176 0.55711901 -0.435359
-1.0304 0.494129 0.053291399
-1.19644 0.573753 -0.41404599
-0.95345402 0.457228 0.073941901
-1.20305 0.576922 -0.38258499
-0.996539 0.477889 0.10311
-1.29447 0.62076402 -0.37582499
-1.05678 0.50677902 0.137058
-2.0811701 0.99802101 -0.54688698
-1.73581 0.83240598 0.27055299
-2.0920501 1.00324 -0.49316701
-1.74392 0.83629298 0.317756
-4.0618401 1.94785 -0.848737
-1.75801 0.84305 0.367342
-1.35052 0.65286797 -0.88960201
-1.11406 0.53855997 -0.203299
-1.41441 0.68375099 -0.88269001
-1.05917 0.51202297 -0.16533799
-1.4754 0.71323502 -0.87133902
-0.92999399 0.449577 -0.120797
-1.52378 0.736624 -0.850124
-0.91794002 0.44374999 -0.095121302
-1.5786999 0.76317102 -0.82999301
-0.939439 0.45414299 -0.072965302
-1.52159 0.73556602 -0.75246298
-1.0540299 0.50953698 -0.054595798
-1.49371 0.72208601 -0.69299001
-1.06749 0.51604497 -0.027527999
-1.0785 0.52136803 -0.46776801
-1.84025 0.88961202 0
-1.1133699 0.53822201 -0.45009899
-1.09269 0.52822798 0.0281779
-1.17365 0.56736398 -0.44048101
-1.80948 0.87473398 0.093725897
-1.19979 0.580001 -0.415833
-0.96997601 0.46890399 0.075337
-1.20123 0.58069903 -0.38258499
-0.99324 0.480151 0.102924
-1.2907799 0.62398499 -0.375319
-1.0641299 0.51441902 0.138219
-2.0937901 1.01218 -0.55103701
-1.69752 0.82061499 0.26498601
-3.6124101 1.7463 -0.85285401
-1.73773 0.84004998 0.31710801
-4.0574698 1.96146 -0.84910798
-1.74827 0.84514701 0.365861
-1.35024 0.65738899 -0.89062202
-1.10013 0.53562099 -0.201029
-1.4266 0.69456702 -0.89150703
-1.0506099 0.51151001 -0.164224
-1.46864 0.71503401 -0.86852199
-0.96267003 0.468694 -0.12521
-1.47351 0.71740699 -0.82319301
-0.91311699 0.44456801 -0.094749801
-1.5619299 0.76045501 -0.82229197
-1.81355 0.88296098 -0.141048
-1.52117 0.74061197 -0.75327599
-1.05979 0.51597703 -0.054968499
-1.10839 0.53964198 -0.514925
-1.0624501 0.51727301 -0.0274352
-1.07872 0.52519298 -0.46849599
-1.71189 0.83346403 0
-1.11524 0.54297501 -0.45146701
-1.08942 0.530402 0.0281315
-1.15332 0.56151599 -0.433438
-1.80164 0.87716001 0.093446396
-1.21018 0.58920002 -0.420003
-1.0153 0.49431899 0.0789643
-1.18751 0.57815999 -0.37872601
-0.99189502 0.482923 0.102924
-1.29425 0.63012803 -0.376838
-1.07162 0.52173698 0.13938101
-2.1032 1.02398 -0.55426401
-3.6092701 1.7572401 -0.85326999
-1.7531199 0.85353798 0.32034999
-4.05551 1.9744999 -0.84984797
-1.7406 0.84744501 0.36475
-1.34685 0.66039997 -0.88960201
-1.12876 0.55346203 -0.206542
-1.42153 0.69701302 -0.889548
-1.0474 0.51357001 -0.163946
-1.47139 0.72146398 -0.87133902
-4.51963 2.2161 -0.58865201
-1.49718 0.73410797 -0.837556
-0.91008401 0.44623899 -0.094563998
-1.50624 0.73855102 -0.79405499
-1.7483799 0.85728002 -0.13616499
-1.52566 0.74807501 -0.75652999
-1.0709 0.52509099 -0.0556206
-1.10522 0.54192299 -0.51415402
-1.05562 0.51759797 -0.027295901
-1.08728 0.53312403 -0.47286099
-1.68262 0.82503301 0
-1.10191 0.540295 -0.44667801
-1.08973 0.53432298 0.0281779
-1.14324 0.56056303 -0.430237
-1.84761 0.905936 0.095961899
-1.21882 0.59762001 -0.42357799
-1.06766 0.52350301 0.083149701
-1.19279 0.58486003 -0.38093099
-1.00485 0.492704 0.104411
-1.28901 0.63203698 -0.37582499
-1.0541 0.51685601 0.13729
-3.23787 1.58762 -0.85445303
-1.29103 0.633026 0.202079
-3.6078601 1.76904 -0.854101
-4.0411601 1.98149 -0.84799701
-14.7476 7.2311602 3.09463
-1.34323 0.66386598 -0.88858199
-1.15001 0.56837302 -0.210757
-1.4224499 0.70302099 -0.89150703
-1.04933 0.51861298 -0.16450299
-1.45804 0.72060603 -0.86476701
-4.51086 2.2294099 -0.58841902
-1.5237 0.753061 -0.853715
-0.90332198 0.44644901 -0.094006702
-1.46826 0.725658 -0.77522999
-1.726 0.85304397 -0.13462999
-1.58227 0.78200698 -0.785815
-1.06029 0.52402699 -0.0551548
-1.1117899 0.54948002 -0.51800799
-1.0521899 0.52002501 -0.0272495
-1.07892 0.53323603 -0.469951
-1.61368 0.79752803 0
-1.09852 0.54292101 -0.44599399
-1.0987999 0.54305899 0.028456399
-1.14147 0.564152 -0.430237
-1.81789 0.898458 0.094564401
-1.22549 0.605676 -0.426557
-1.09284 0.54011399 0.085242398
-1.20301 0.59456599 -0.38479
-1.02293 0.50556397 0.106454
-1.2887501 0.63694 -0.37633201
-1.01508 0.50168198 0.132412
-1.32595 0.65532398 -0.35045001
-1.1754 0.580917 0.184265
-2.03966 1.00806 -0.483603
-4.0472498 2.0002799 -0.85058898
-14.7459 7.2879 3.0990801
-1.34445 0.66914701 -0.89062202
-1.12722 0.56102997 -0.206866
-1.4173599 0.70543599 -0.889548
-1.06029 0.52771902 -0.16645101
-1.4655 0.72939599 -0.87040001
-4.4815001 2.23049 -0.58539999
-1.528 0.760499 -0.857306
-0.89315802 0.444534 -0.093077697
-1.4597501 0.72653401 -0.77180803
-1.77899 0.88541901 -0.138955
-1.6864001 0.83933902 -0.838691
-1.13173 0.56327301 -0.52802998
-1.04537 0.520289 -0.0271102
-1.07743 0.53624701 -0.469951
-1.10036 0.54766202 -0.44736201
-1.10981 0.55236101 0.028781399
-1.14498 0.56987 -0.43215799
-1.40938 0.70146 0.073415503
-1.21525 0.60484201 -0.42357799
-1.0913301 0.54316401 0.085242398
-1.2065099 0.60049403 -0.386444
-1.00369 0.49954599 0.104596
-1.2835 0.63881201 -0.375319
-0.98877501 0.49212301 0.12916
-1.19682 0.59566897 0.187884
-2.02633 1.00852 -0.48110801
-15.0337 7.48245 2.75897
-1.03812 0.51668501 -0.21847899
-14.7308 7.3316798 3.1001899
-1.33939 0.67159098 -0.88858199
-1.03558 0.51925701 -0.190329
-1.4215 0.71276498 -0.893466
-1.05695 0.529975 -0.166173
-1.46333 0.73374099 -0.87040001
-1.05834 0.53066999 -0.13845199
-1.5049599 0.75461501 -0.84563601
-0.88471401 0.443611 -0.092334598
-1.44951 0.72680998 -0.76752901
-1.77992 0.89248198 -0.13923401
-1.7688299 0.88692403 -0.880992
-1.07154 0.53728801 -0.055900101
-1.08386 0.54346597 -0.506446
-1.03488 0.51890701 -0.0268781
-1.0675 0.53526598 -0.466313
-1.0441 0.52352899 0
-1.08025 0.54165798 -0.43983799
-1.6265 0.81555301 0.0422436
-1.15853 0.580908 -0.43792
-1.1001101 0.55161601 0.057390802
-1.18785 0.59560901 -0.41464201
-1.08436 0.54371601 0.084823899
-0.99864101 0.500736 0.104225
-1.27641 0.64001602 -0.373799
-0.98375899 0.493274 0.128695
-1.30301 0.65335399 -0.34537801
-1.1684901 0.58590198 0.183709
-15.0221 7.53232 2.76091
-1.02253 0.51271498 -0.215517
-14.716 7.37887 3.10167
-1.33892 0.67633802 -0.88960201
-1.00409 0.50720102 -0.184817
-1.41627 0.71540701 -0.89150703
-1.0624501 0.53667998 -0.16728599
-1.4564199 0.73569101 -0.86758399
-0.95214897 0.48096499 -0.124746
-1.49953 0.757465 -0.84384
-0.894059 0.451621 -0.093449302
-1.46187 0.73844302 -0.77522999
-1.78617 0.90225703 -0.13993099
-1.75641 0.88722599 -0.87611097
-1.06459 0.537763 -0.0556206
-1.0493 0.530038 -0.49102899
-1.01906 0.514763 -0.0265067
-1.0709 0.54095101 -0.46849599
-1.01933 0.514902 0
-1.0669 0.53892899 -0.43505001
-1.71509 0.86635298 0.0446111
-1.1263601 0.56896597 -0.42639601
-1.10026 0.55577898 0.057484001
-1.17926 0.59568697 -0.41225901
-1.00617 0.50825 0.078824803
-1.2080801 0.61024302 -0.38809699
-1.00071 0.50549299 0.104596
-1.27451 0.64380002 -0.373799
-0.987611 0.498878 0.129392
-1.29933 0.65634 -0.344917
-1.16321 0.58758003 0.18315201
-2.0255499 1.02318 -0.482355
-15.0085 7.5813098 2.7625301
-1.02101 0.51574701 -0.215517
-14.7151 7.4331398 3.1061101
-1.33727 0.67960799 -0.88960201
-0.99404699 0.50518203 -0.18319599
-1.41607 0.71965599 -0.89248699
-1.06996 0.54376203 -0.168678
-1.4687901 0.74644798 -0.87603402
-0.90669799 0.46079099 -0.118938
-1.5375 0.78136998 -0.866283
-0.901829 0.458316 -0.094378203
-1.4938999 0.75921297 -0.793199
-1.90668 0.96898901 -0.14955799
-1.7135201 0.870821 -0.85577399
-1.07752 0.54760402 -0.056366
-1.03813 0.52758402 -0.486404
-1.01245 0.514534 -0.0263675
-1.0729001 0.54525399 -0.469951
-1.01094 0.513767 0
-1.06893 0.54323697 -0.436418
-1.7094001 0.86873001 0.044518299
-1.1078 0.56299102 0.0579498
-1.1778001 0.59856701 -0.41225901
-0.974684 0.495341 0.076453097
-0.983491 0.49981701 0.102924
-1.28501 0.65304899 -0.377345
-0.99524301 0.50579 0.13055301
-1.29426 0.65775001 -0.34399399
-1.1706001 0.594908 0.184544
-14.9952 7.6206498 2.76351
-1.025 0.52091199 -0.216628
-14.7162 7.4788699 3.1101799
-1.33359 0.68302101 -0.88858199
-0.99772501 0.51100099 -0.18416899
-1.4138 0.72410101 -0.89248699
-1.0894001 0.55795401 -0.17201801
-1.4695801 0.75266898 -0.87791198
-0.876957 0.449148 -0.115222
-1.54777 0.792714 -0.87346399
-0.90747398 0.46477801 -0.095121302
-1.52369 0.78038299 -0.81031197
-2.01372 1.03136 -0.158208
-1.67012 0.85537797 -0.835437
-1.05801 0.541879 -0.055434301
-1.03811 0.53168398 -0.48717499
-1.0054899 0.51497799 -0.026228201
-1.06786 0.54692298 -0.46849599
-1.01466 0.51967502 0
-1.07558 0.55087602 -0.43983799
-1.77429 0.90873098 0.046282299
-1.08269 0.55451798 -0.41102999
-1.0900199 0.558272 0.057111301
-1.1878099 0.608356 -0.41642901
-0.97845 0.50112897 0.076871596
-2.01402 1.03151 -0.64885002
-0.97128099 0.49745801 0.10181
-0.99718499 0.51072502 0.131018
-1.2852499 0.65826398 -0.34215
-1.62529 0.83241701 0.25663501
-1.34944 0.691136 -0.322263
-14.9887 7.6767101 2.7667501
-1.01986 0.52233702 -0.215887
-14.7031 7.5304399 3.1124101
-1.33321 0.68753099 -0.88960201
-1.00331 0.51740402 -0.18546601
-1.3962801 0.72005397 -0.88269001
-1.072 0.55282402 -0.169513
-1.47532 0.76081699 -0.88260698
-0.87393397 0.45068499 -0.114989
-1.5376 0.79293698 -0.868976
-5.14324 2.6523499 -0.53988802
-1.5343601 0.79126298 -0.81715798
-1.97537 1.01869 -0.155417
-1.66935 0.86087602 -0.83625102
-1.06005 0.54666299 -0.0556206
-1.04646 0.53965598 -0.49180001
-1.00938 0.52053303 -0.0263675
-1.0679899 0.55075699 -0.46922299
-1.10919 0.572007 0
-1.08573 0.55990702 -0.444626
-1.72554 0.88985503 0.045075402
-1.08956 0.56188101 -0.414231
-1.08846 0.56131399 0.057111301
-1.19459 0.61604702 -0.41940799
-0.97527403 0.50294501 0.076732099
-2.0418899 1.053 -0.65877301
-0.978737 0.50473201 0.102738
-2.0514901 1.05795 -0.604258
-1.00282 0.51714897 0.131947
-1.2903301 0.66541803 -0.34399399
-1.6828001 0.86781597 0.26609901
-1.33359 0.68772799 -0.318937
-14.9795 7.7248702 2.7690201
-1.02713 0.529688 -0.217739
-14.696 7.57868 3.11537
-1.32976 0.69045901 -0.88858199
-1.00712 0.52293199 -0.18643899
-1.38188 0.71752298 -0.87485301
-1.0686899 0.55490297 -0.16923501
-1.46692 0.76167798 -0.878851
-0.88677597 0.46044701 -0.116848
-1.53697 0.79805201 -0.869874
-1.87335 0.97271299 -0.196931
-1.55942 0.80970699 -0.83170402
-1.93888 1.00674 -0.152767
-1.7074701 0.88658297 -0.85658699
-1.04004 0.540025 -0.48948699
-1.01324 0.52611399 -0.0265067
-1.06975 0.55545402 -0.470678
-1.49986 0.77878499 0
-1.07582 0.55860698 -0.44120601
-1.64852 0.85597199 0.0431257
-1.11321 0.57801902 -0.42383501
-1.0851099 0.56343102 0.057018101
-1.18778 0.616741 -0.41762
-0.97209501 0.50474697 0.076592602
-2.0406499 1.05958 -0.659325
-0.98262602 0.510216 0.103296
-2.0485301 1.06367 -0.604258
-1.03487 0.53733999 0.136361
-1.31092 0.68067801 -0.349989
-1.62589 0.84421998 0.25747001
-1.32472 0.68784398 -0.31727299
-1.78479 0.92672598 0.33040199
-1.0239 0.53164798 -0.21736901
-14.6783 7.6215 3.1161101
-1.3352 0.69862002 -0.893682
-1.00547 0.52609301 -0.18643899
-1.37035 0.71701002 -0.86897397
-1.0704499 0.560094 -0.169791
-1.46295 0.76546401 -0.87791198
-0.89764601 0.469677 -0.118474
-1.51862 0.79459 -0.860897
-1.87558 0.981363 -0.197488
-1.56968 0.82130599 -0.83854902
-1.96399 1.02762 -0.154999
-1.7111599 0.89533103 -0.85984099
-1.0514801 0.550165 -0.055341098
-1.03343 0.54072303 -0.48717499
-1.00982 0.528368 -0.026460299
-1.0614001 0.55535698 -0.46776801
-1.5736099 0.82336301 0
-1.05908 0.554142 -0.43505001
-1.58559 0.82963002 0.041547298
-1.14161 0.59732503 -0.435359
-1.0727201 0.56128001 0.056459099
-1.1756901 0.61515802 -0.41404599
-0.98641402 0.516123 0.077848203
-1.9811 1.03657 -0.64113301
-0.98631197 0.51607001 0.103853
-2.0520301 1.0736901 -0.60628402
-1.65448 0.86567903 0.218363
-1.3105 0.68569499 -0.35045001
-1.42668 0.74648601 0.22629499
-1.33295 0.69744402 -0.31976801
-1.77487 0.92866898 0.32910499
-1.03268 0.54032898 -0.21958999
-14.6786 7.6803298 3.12129
-1.33325 0.70234603 -0.893682
-1.0005 0.52705902 -0.18579
-1.37297 0.72327203 -0.87191302
-1.06538 0.56123501 -0.16923501
-1.46394 0.77119303 -0.87979001
-0.90336102 0.475885 -0.119403
-1.53695 0.80965698 -0.872567
-1.8605 0.98009998 -0.196188
-1.58017 0.83242601 -0.84539402
-2.00701 1.0572799 -0.15862601
-1.6100399 0.84816003 -0.81021899
-1.04993 0.55309898 -0.055341098
-1.0204901 0.53758597 -0.48177901
-1.01011 0.53211701 -0.0265067
-1.05655 0.55658299 -0.466313
-1.60316 0.84453303 0
-1.06418 0.560601 -0.43778601
-1.56557 0.82473499 0.041083101
-1.15167 0.60669202 -0.439841
-1.06584 0.56147999 0.056179602
-1.16721 0.61488003 -0.411663
-1.01674 0.53561401 0.080359504
-1.87784 0.98923397 -0.60860699
-0.990152 0.52160603 0.104411
-2.0473199 1.07851 -0.60577798
-2.05757 1.08391 -0.55103701
-1.07239 0.56492698 0.170348
-1.3448499 0.70845801 -0.32309499
-1.77227 0.93362099 0.32910499
-1.0276901 0.54137897 -0.21885
-14.6763 7.73137 3.12537
-1.32824 0.70445502 -0.89164197
-0.993797 0.52707702 -0.184817
-1.38019 0.732005 -0.877792
-1.06031 0.562352 -0.168678
-1.4649 0.77693301 -0.88166797
-0.917822 0.486783 -0.121494
-1.52205 0.80724698 -0.865385
-1.8542399 0.98342597 -0.195816
-1.59541 0.84615302 -0.85480702
-1.96527 1.04231 -0.15555701
-1.57054 0.83296299 -0.79150999
-1.06251 0.56351799 -0.056086499
-1.01898 0.540434 -0.48177901
-1.01215 0.53680998 -0.026599601
-1.05005 0.556912 -0.464131
-1.5901901 0.84338403 0
-1.05264 0.55828798 -0.43368199
-1.5615 0.82816702 0.041036699
-1.15499 0.61256897 -0.44176099
-1.0678 0.56632602 0.056366
-1.17392 0.62260997 -0.41464201
-1.06636 0.565561 0.084405303
-1.85469 0.98366499 -0.60199201
-0.98341399 0.52157003 0.103853
-2.0631001 1.0942 -0.61134899
-1.13017 0.59940398 0.149602
-2.05969 1.0923899 -0.55242002
-1.3342201 0.707627 -0.32101601
-1.77837 0.94319099 0.330726
-1.04527 0.55437601 -0.222923
-14.6633 7.7769198 3.1272199
-1.32614 0.70839298 -0.89164197
-0.99396998 0.53095299 -0.185142
-1.3657 0.72952503 -0.86995399
-1.04466 0.55803001 -0.16645101
-1.46882 0.78460401 -0.885423
-4.4592199 2.382 -0.59120703
-1.51177 0.807549 -0.860897
-1.89522 1.01238 -0.200461
-1.60246 0.85599297 -0.85994101
-1.98857 1.06224 -0.15764999
-1.56484 0.83589798 -0.78988302
-1.09431 0.584553 -0.057856601
-1.02714 0.54867202 -0.486404
-1.0158401 0.54263699 -0.0267388
-1.05004 0.56090301 -0.46485901
-1.57533 0.84150201 0
-1.04601 0.558752 -0.431629
-1.56256 0.83468097 0.0411295
-1.15818 0.61867201 -0.44368199
-1.06788 0.57043302 0.056459099
-1.18891 0.635086 -0.42059901
-1.0893101 0.58188301 0.086358503
-1.84328 0.98463398 -0.59923601
-1.01875 0.54418898 0.107755
-1.13539 0.606498 0.15053099
-2.0633099 1.10217 -0.55426401
-1.07261 0.57296097 0.17090499
-1.33039 0.71066099 -0.3206
-1.77034 0.94567299 0.32975301
-1.92775 1.02976 -0.411778
-14.654 7.8278098 3.1301799
-1.3240401 0.71232402 -0.89164197
-0.99412799 0.53483498 -0.18546601
-1.36507 0.73439997 -0.87093401
-1.04649 0.56300402 -0.167008
-1.46182 0.786448 -0.88260698
-4.4941201 2.41781 -0.59678203
-1.51566 0.81541699 -0.86448699
-1.89572 1.01989 -0.20083199
-1.58559 0.85303599 -0.85224003
-2.01352 1.0832601 -0.15988199
-1.58166 0.85092503 -0.79964399
-1.93179 1.03929 -0.102297
-1.03201 0.55521399 -0.48948699
-0.99485803 0.53522801 -0.026228201
-1.04345 0.56136799 -0.46267599
-1.60277 0.86228102 0
-1.046 0.56274301 -0.432313
-1.55127 0.83457702 0.040897399
-1.15467 0.62120801 -0.44304201
-1.0697 0.57549202 0.056645501
-1.21392 0.65308303 -0.43013099
-1.10866 0.59645498 0.0880327
-1.84882 0.99465299 -0.60199201
-1.03817 0.55853099 0.109984
-2.8931701 1.55651 -0.86004198
-1.5167 0.81597501 0.201405
-2.0703101 1.11382 -0.55703098
-1.06567 0.57332599 0.17007001
-1.33345 0.71738601 -0.32184699
-1.76579 0.94998699 0.329429
-1.83641 0.98798001 -0.39289299
-14.648 7.8805599 3.1338799
-1.31587 0.71297199 -0.88756102
-0.99427199 0.53872299 -0.18579
-1.36748 0.74093902 -0.873873
-1.04133 0.56422001 -0.16645101
-1.46103 0.791623 -0.88354599
-1.8548501 1.00501 -0.246704
-1.52109 0.82416803 -0.868976
-1.86467 1.01033 -0.19786
-1.56715 0.84912503 -0.843683
-1.57592 0.85387301 -0.79801702
-1.8970799 1.02789 -0.10062
-1.0125099 0.548603 -0.48100799
-0.99853998 0.541035 -0.0263675
-1.04997 0.56889898 -0.466313
-1.82881 0.99089497 0
-1.06911 0.579274 -0.44257399
-1.55582 0.84298599 0.041083101
-1.15782 0.62733901 -0.44496301
-1.07853 0.58437401 0.0572045
-1.17337 0.63576299 -0.41642901
-1.13671 0.61589998 0.090404399
-1.83403 0.99372298 -0.59813303
-1.02776 0.55686599 0.109055
-2.89024 1.56601 -0.86054802
-1.5754 0.85359401 0.209536
-2.0481801 1.10976 -0.55195898
-1.06223 0.57554197 0.169791
-1.33303 0.72227103 -0.322263
-1.76123 0.95428199 0.32910499
-1.09732 0.59455699 -0.23514301
-14.6419 7.9333501 3.1375899
-1.31538 0.71746701 -0.88858199
-0.99103099 0.54055202 -0.18546601
-1.38225 0.75393897 -0.88464898
-1.0432301 0.569022 -0.167008
-1.4154 0.77202398 -0.85725498
-1.87471 1.02255 -0.249724
-1.52192 0.83012402 -0.87077099
-1.86359 1.01648 -0.198046
-1.56478 0.85349798 -0.843683
-2.2156799 1.2085299 -0.176484
-1.29443 0.70603901 -0.65647298
-1.88894 1.03031 -0.100341
-1.00449 0.54789299 -0.47792399
-0.99527001 0.54286402 -0.026320999
-1.05164 0.57361299 -0.46776801
-1.84008 1.00366 0
-1.08399 0.59125698 -0.44941401
-1.57277 0.85785902 0.041593701
-1.1710401 0.63873601 -0.45072499
-1.41715 0.77297401 0.075278804
-1.15818 0.63172299 -0.411663
-1.9582 1.06809 0.155975
-1.81774 0.991476 -0.593723
-1.01396 0.55305898 0.107755
-2.89095 1.5768501 -0.862068
-2.04849 1.11733 -0.552881
-1.0693099 0.58324802 0.171183
-1.3361599 0.72880101 -0.323511
-1.75683 0.958251 0.32878
-1.08875 0.59385401 -0.23366199
-14.6266 7.9779701 3.13907
-1.31639 0.72279298 -0.89062202
-0.99470699 0.54616702 -0.18643899
-1.38931 0.76283097 -0.89052701
-1.0398999 0.57098001 -0.166729
-1.3931201 0.76492399 -0.84504902
-1.87533 1.02969 -0.25018901
-1.5274301 0.83867198 -0.87526
-1.86947 1.02648 -0.198975
-1.5845701 0.87004501 -0.85566199
-2.22278 1.22047 -0.177321
-0.95933002 0.52674198 -0.48727101
-1.89131 1.03847 -0.10062
-0.99810398 0.54803199 -0.47561201
-0.99550301 0.54660302 -0.0263675
-1.06637 0.58551401 -0.475043
-1.8197401 0.99916798 0
-1.60785 0.88282901 -0.66762298
-1.58965 0.87283301 0.042104401
-1.16427 0.63926703 -0.44880399
-1.50079 0.82404399 0.079843998
-1.1447001 0.62852198 -0.407493
-1.71891 0.94380599 -0.56230003
-1.02812 0.56451398 0.109427
-1.8503 1.01595 -0.55259502
-1.0900199 0.59850198 0.145421
-2.0453601 1.12305 -0.552881
-1.07462 0.59004402 0.172296
-1.41643 0.77772403 -0.34347001
-14.912 8.1877499 2.79496
-1.07331 0.589324 -0.2307
-14.6283 8.0320301 3.1442499
-1.31286 0.72563398 -0.88960201
-1.00181 0.553716 -0.18806
-1.3887 0.767551 -0.89150703
-1.03137 0.57004899 -0.16561601
-1.39407 0.77051997 -0.84692699
-1.86201 1.02916 -0.248795
-1.53291 0.84725702 -0.87974799
-1.9398 1.07215 -0.20677701
-1.59005 0.87883902 -0.85994101
-2.2263501 1.23053 -0.17787901
-0.964252 0.53295398 -0.49052399
-1.94611 1.07564 -0.103695
-1.0030299 0.55438799 -0.47869501
-0.99747199 0.55131602 -0.026460299
-1.06962 0.59119397 -0.47722599
-1.82394 1.0081199 0
-1.61525 0.89277101 -0.67172801
-1.73245 0.95754802 0.045957401
-1.5352 0.848526 0.081800498
-1.1462801 0.633564 -0.40868399
-1.83696 1.01531 0.146768
-1.59175 0.87978297 -0.52150601
-1.03874 0.57412601 0.110727
-1.83391 1.01363 -0.54854298
-1.09009 0.60250503 0.14565299
-2.05584 1.13629 -0.55656999
-1.08163 0.59783298 0.17368799
-1.93989 1.0721999 -0.47112799
-14.9219 8.2475004 2.80112
-1.07338 0.59327 -0.23107
-14.6248 8.0833101 3.14833
-1.31208 0.73059201 -0.89062202
-1.00869 0.56166101 -0.18968099
-1.38476 0.77106202 -0.89052701
-1.0312999 0.57424998 -0.165894
-1.4117 0.78606403 -0.85913301
-1.8414201 1.02534 -0.246472
-1.5302401 0.85206801 -0.87974799
-1.97296 1.09858 -0.21067899
-1.59517 0.88822699 -0.86421901
-2.2172501 1.23461 -0.17746
-0.960976 0.535092 -0.48971099
-2.0038099 1.11576 -0.106956
-0.98999703 0.55125099 -0.473299
-0.98874801 0.550556 -0.026274599
-1.07427 0.598176 -0.48013601
-1.83125 1.01968 0
-1.42854 0.795439 -0.59511501
-1.75389 0.97660398 0.046607301
-1.5627199 0.87015599 -0.60438102
-1.52904 0.85140097 0.081614196
-1.14595 0.63809103 -0.40928
-1.81633 1.0113699 0.145372
-1.54027 0.857656 -0.50551897
-1.0491101 0.58416802 0.112028
-1.57761 0.87844902 0.211162
-2.03526 1.13327 -0.55195898
-1.0797499 0.601228 0.17368799
-14.9235 8.3097 2.8063099
-1.0801001 0.60141999 -0.232921
-14.6113 8.13591 3.1509199
-1.30703 0.73257101 -0.88858199
-0.99506801 0.55772102 -0.187411
-1.3780299 0.77236801 -0.88758802
-1.03142 0.57809597 -0.166173
-1.4095 0.790003 -0.85913301
-4.4395399 2.4883001 -0.59515601
-1.54032 0.86332899 -0.88692999
-1.99073 1.11577 -0.212908
-1.60373 0.89886498 -0.87020898
-2.1754999 1.21934 -0.174391
-0.95629102 0.53598702 -0.48808399
-2.2481599 1.26006 -0.120185
-0.99811298 0.55942798 -0.47792399
-0.99592698 0.55820298 -0.0265067
-1.08235 0.60663903 -0.48449999
-1.74291 0.97687298 0
-1.12137 0.62851399 -0.467884
-1.66918 0.93555099 0.044425499
-1.63466 0.91620398 -0.63319099
-1.5283999 0.85664499 0.081707299
-1.15582 0.64782202 -0.41345
-1.87441 1.05058 0.15025499
-1.56638 0.87793303 -0.51489103
-1.0579 0.59293699 0.113142
-1.82449 1.0226001 -0.54753
-1.06943 0.59939897 0.172296
-1.7560199 0.98422098 -0.42788199
-1.08287 0.60693198 0.20394801
-1.07841 0.60443401 -0.232921
-14.6126 8.1901302 3.1561
-1.3062201 0.73751903 -0.88960201
-0.98815501 0.55793297 -0.18643899
-1.38016 0.77926499 -0.89052701
-1.0278701 0.58036 -0.165894
-1.3916301 0.78574502 -0.84974402
-1.84568 1.04211 -0.247866
-1.53916 0.86904198 -0.88782799
-1.98201 1.1190799 -0.21235099
-1.5946 0.900343 -0.866786
-1.89369 1.0692199 -0.152069
-0.95937502 0.54168397 -0.49052399
-2.2528901 1.27203 -0.120651
-1.00599 0.56800503 -0.48255
-1.00287 0.56624401 -0.0267388
-1.10315 0.62286001 -0.49468499
-1.72067 0.97152799 0
-1.11121 0.62741297 -0.464463
-1.56177 0.88180703 0.0416402
-1.64168 0.926925 -0.63703299
-1.51178 0.85358399 0.080962002
-1.1621 0.65614402 -0.41642901
-1.7460099 0.98583698 0.140211
-1.62556 0.91782302 -0.53528798
-1.9507999 1.10146 0.20900699
-1.81789 1.02642 -0.54651701
-1.73843 0.98155499 0.233463
-1.76921 0.998936 -0.481408
-1.08479 0.61249399 0.17508
-1.58938 0.89739603 -0.387963
-1.07408 0.60644901 0.20265099
-1.05426 0.59525698 -0.22810701
-14.5919 8.2388897 3.1572101
-1.3117599 0.74518502 -0.89470297
-0.97982699 0.55661899 -0.185142
-1.3781101 0.78287601 -0.89052701
-1.02463 0.58206999 -0.16561601
-1.40646 0.79898101 -0.86007202
-1.8291301 1.03909 -0.246007
-1.5244499 0.86600697 -0.88064599
-2.06738 1.17443 -0.221826
-1.82323 1.03574 -0.14662801
-0.96113098 0.54599798 -0.49215099
-2.24086 1.27299 -0.120185
-1.0045 0.57063597 -0.48255
-1.01182 0.57479298 -0.0270174
-1.70769 0.97010201 0
-1.09813 0.62382197 -0.45967501
-1.7002701 0.96588999 0.045400299
-1.65572 0.940579 -0.643435
-1.5217 0.864447 0.081614196
-1.16369 0.66106999 -0.41762
-1.5821 0.89875501 0.12723599
-1.63151 0.92682397 -0.53804398
-1.8474801 1.04951 0.198231
-1.81688 1.03213 -0.547023
-1.75486 0.99689603 0.236018
-1.71752 0.97568798 -0.46803501
-1.07629 0.61141801 0.17396601
-1.10224 0.62616003 -0.269454
-1.07077 0.60828501 0.202326
-1.03048 0.58539402 -0.22329301
-14.5908 8.2887201 3.16166
-1.30507 0.74651098 -0.89164197
-0.97645903 0.55854398 -0.184817
-1.38184 0.79042399 -0.89444602
-1.01946 0.58314103 -0.165059
-1.43321 0.81980902 -0.87791198
-1.8346601 1.04944 -0.247169
-1.5296299 0.87496299 -0.88513499
-2.1468501 1.22802 -0.230744
-1.3934 0.79703897 -0.75982797
-2.0348899 1.16398 -0.163928
-0.96267903 0.55066198 -0.49377799
-2.08794 1.19432 -0.112173
-1.0124201 0.57911199 -0.48717499
-1.02226 0.58474201 -0.027342301
-1.16272 0.66508698 -0.52305698
-1.64404 0.94040799 0
-1.0930099 0.625211 -0.458307
-1.70608 0.97589397 0.0456324
-1.66772 0.95395398 -0.64919698
-1.5226001 0.87094098 0.081800498
-1.73016 0.98966998 -0.62196201
-1.56384 0.89453 0.12598
-1.62875 0.93166 -0.53804398
-1.77522 1.01544 0.1908
-1.80206 1.03079 -0.54347801
-1.77258 1.01393 0.23880599
-1.69604 0.97014999 -0.46296301
-1.07619 0.615592 0.174245
-1.08679 0.62165701 -0.26612699
-1.0604 0.60655898 0.20070501
-1.0168 0.58161801 -0.22070099
-14.5849 8.3427 3.16573
-1.3056999 0.75232601 -0.893682
-0.97811902 0.56357998 -0.18546601
-1.37632 0.79302102 -0.89248699
-1.01762 0.58634102 -0.165059
-1.4367501 0.82783401 -0.88166797
-1.83996 1.06016 -0.24833
-1.52997 0.881549 -0.88692999
-2.1429801 1.23476 -0.230744
-0.94292301 0.54329997 -0.515109
-1.97936 1.14048 -0.159742
-0.97202599 0.56006902 -0.49947301
-1.79682 1.03531 -0.096707202
-1.00579 0.57952601 -0.484862
-1.59602 0.919608 0
-1.09592 0.63145697 -0.46035901
-1.71167 0.98624098 0.0458645
-1.67457 0.96486503 -0.65303898
-1.53543 0.88469797 0.082639001
-1.64764 0.94934899 -0.59336698
-1.54027 0.88748598 0.124306
-1.63248 0.94061202 -0.54024899
-1.77202 1.02101 0.1908
-1.58255 0.91184598 -0.47813901
-1.88184 1.08429 -0.51460803
-1.07425 0.61897099 0.174245
-1.08992 0.62799799 -0.26737401
-1.07217 0.61777002 0.203299
-1.0234801 0.58971602 -0.222553
-14.579 8.40026 3.1701701
-1.30075 0.75401598 -0.89164197
-0.973225 0.56415898 -0.184817
-1.38179 0.80099303 -0.897385
-1.00409 0.58205003 -0.163111
-1.4361 0.83247799 -0.88260698
-1.5261101 0.88465399 -0.88603199
-2.0777199 1.20441 -0.22405501
-0.93054998 0.53942102 -0.50911897
-1.9573801 1.13466 -0.158208
-0.97529799 0.56536102 -0.50191301
-1.78373 1.03399 -0.0961482
-1.02184 0.59233803 -0.493341
-1.78346 1.0338399 -0.047860701
-1.09279 0.63346601 -0.49322999
-1.64033 0.95086402 0
-1.09589 0.63526601 -0.461043
-1.74541 1.01178 0.046839401
-1.68187 0.97494698 -0.65688002
-1.56422 0.90674901 0.084316
-1.65671 0.96036202 -0.59753698
-1.53104 0.88751298 0.123748
-1.69155 0.98055702 -0.560646
-1.75556 1.01766 0.18931399
-1.5148799 0.87814301 -0.45838499
-1.7460901 1.01217 0.236018
-1.0760601 0.62376702 0.17480101
-1.0882699 0.630849 -0.26737401
-1.0739599 0.622554 0.20394801
-1.04064 0.60323602 -0.22662599
-14.5808 8.4521999 3.17536
-1.2999901 0.75873899 -0.89266199
-0.96984297 0.56604898 -0.18449301
-1.37639 0.80333197 -0.89542598
-1.00407 0.586025 -0.163389
-1.4382 0.83940601 -0.885423
-1.83058 1.0684201 -0.247866
-1.52502 0.89007902 -0.88692999
-0.92738402 0.54126799 -0.50826401
-1.9333301 1.12839 -0.156534
-0.96888298 0.56548899 -0.49947301
-1.80827 1.05539 -0.097638898
-1.02007 0.59536701 -0.493341
-1.73894 1.01493 -0.0467465
-1.08286 0.63200998 -0.489593
-1.69968 0.99202001 0
-1.10374 0.64419901 -0.46514699
-1.72858 1.00889 0.046468001
-1.65279 0.96465099 -0.64663601
-1.6409 0.95771003 0.088601701
-1.73465 1.01243 -0.626728
-1.55425 0.90713698 0.12584101
-1.7384501 1.01464 -0.57718498
-1.72673 1.00781 0.186527
-1.5005701 0.87580597 -0.45484
-1.74823 1.02035 0.236715
-1.71776 1.00257 -0.47126299
-1.07078 0.62496001 0.174245
-1.09146 0.637034 -0.26862201
-1.067 0.62275302 0.202975
-1.0694 0.62415302 -0.233292
-14.5659 8.5013599 3.1775801
-1.29921 0.76346397 -0.893682
-0.96815902 0.56892401 -0.18449301
-1.374 0.80741203 -0.89542598
-1.00403 0.59000498 -0.16366801
-1.44179 0.84724802 -0.88917899
-1.80685 1.06177 -0.245078
-1.48385 0.87196398 -0.86448699
-1.84048 1.08153 -0.19915999
-0.93668401 0.55042797 -0.51425302
-1.92997 1.13412 -0.156534
-0.960899 0.56465799 -0.49621901
-1.81029 1.06379 -0.097918399
-1.02149 0.60026097 -0.494883
-1.72558 1.01401 -0.046468001
-1.06813 0.62766898 -0.48377299
-1.75536 1.03151 0
-1.22821 0.72174001 -0.51850301
-1.6842099 0.98970002 0.045353901
-1.57151 0.923473 -0.61590499
-1.65872 0.97472101 0.089719698
-1.59799 0.93903601 0.12960801
-1.68404 0.98960298 -0.56009501
-1.67223 0.98265898 0.18095399
-1.48962 0.87535399 -0.45230699
-1.68961 0.99287403 -0.46434599
-1.07233 0.63014197 0.17480101
-1.1115 0.65315402 -0.274028
-1.09237 0.64191502 0.20816299
-1.0624599 0.62433702 -0.232181
-14.5592 8.5555 3.1816499
-1.29573 0.76598799 -0.89266199
-0.96836501 0.57246101 -0.184817
-1.36288 0.80568302 -0.889548
-0.988846 0.58456898 -0.161441
-1.43957 0.85101998 -0.88917899
-1.7886699 1.05739 -0.24298701
-1.44464 0.85401702 -0.84294301
-1.94907 1.15221 -0.211236
-0.93990803 0.55563802 -0.51682001
-1.92528 1.13815 -0.156394
-0.951554 0.56252301 -0.49215099
-1.8075 1.06853 -0.097918399
-1.76079 1.04091 -0.0474893
-1.06327 0.62856698 -0.48231801
-1.70789 1.00964 0
-1.6885 0.99817502 0.045539599
-1.23961 0.73281097 -0.48657799
-1.65272 0.977027 0.089533404
-1.4857301 0.878308 -0.53855801
-1.63846 0.96859902 0.133095
-1.60697 0.949983 -0.53528798
-1.6850801 0.99615401 0.18262599
-1.4973201 0.885158 -0.45534599
-1.79722 1.0624501 0.244149
-1.64847 0.97451597 -0.45374101
-1.06727 0.63093102 0.174245
-1.38933 0.82132101 -0.343054
-1.08899 0.64376801 0.207839
-1.0709701 0.63311702 -0.234403
-14.5571 8.6055899 3.1861
-1.29345 0.76982898 -0.89266199
-0.964966 0.574323 -0.18449301
-1.36498 0.81239802 -0.89248699
-0.98710698 0.58749998 -0.161441
-1.43704 0.85528702 -0.88917899
-1.76504 1.05051 -0.2402
-1.41292 0.84093302 -0.82588601
-2.0175099 1.20077 -0.21903899
-0.94446898 0.562123 -0.52024299
-1.92704 1.14692 -0.156813
-0.93731999 0.557868 -0.48564401
-1.80089 1.07184 -0.097732
-0.99432999 0.59179902 -0.48332
-1.77315 1.05533 -0.047907099
-1.0678101 0.63552999 -0.485228
-1.6825401 1.00141 0
-1.38404 0.82374698 -0.58622301
-1.72504 1.0267 0.046607301
-1.1055501 0.65799201 -0.434719
-1.63951 0.97579598 0.088974401
-1.5421799 0.91786498 -0.56000501
-1.6853 1.00305 0.137141
-1.57771 0.93901402 -0.52646703
-1.665 0.99096501 0.180768
-1.4913599 0.88761801 -0.45433301
-1.60209 0.95352399 -0.44175199
-1.06539 0.63409501 0.174245
-1.55668 0.926494 -0.38505301
-1.07011 0.63690299 0.204596
-1.07077 0.63729697 -0.234773
-1.0724601 0.63830203 0.23514301
-1.2895499 0.773004 -0.89164197
-0.95977199 0.57532197 -0.183845
-1.35943 0.81488901 -0.89052701
-0.98865402 0.59263498 -0.16199701
-1.42071 0.85162699 -0.88072902
-1.7736599 1.06319 -0.241826
-1.4424599 0.86466402 -0.84473801
-2.0922899 1.2542 -0.227585
-0.93959701 0.56322902 -0.51853102
-1.93198 1.1581 -0.15751
-0.93556303 0.56081003 -0.48564401
-1.7958 1.07647 -0.097638898
-0.98296797 0.58922702 -0.47869501
-1.76125 1.05576 -0.047674999
-1.08338 0.649418 -0.49322999
-1.67767 1.0056601 0
-1.29763 0.77784503 -0.55065203
-1.74582 1.04651 0.0472572
-1.09697 0.657565 -0.43215799
-1.62616 0.97477901 0.088415399
-1.47215 0.88246 -0.53557903
-1.87551 1.1242501 0.152906
-1.5302401 0.91727799 -0.51158297
-1.67896 1.00643 0.18262599
-1.48027 0.88732499 -0.451801
-1.56738 0.939542 -0.43299001
-1.0599999 0.63540202 0.17368799
-1.54873 0.92836303 -0.38380501
-1.07995 0.64736402 0.206866
-1.07214 0.64267898 -0.235513
-1.07551 0.64469999 0.23625401
-1.29061 0.77792901 -0.893682
-0.96343398 0.58072197 -0.184817
-1.36639 0.82361001 -0.89640498
-0.99059498 0.597094 -0.162554
-1.38082 0.83230501 -0.85725498
-1.77446 1.06958 -0.24229001
-1.44188 0.86910897 -0.84563601
-2.0977499 1.26445 -0.228514
-0.94286299 0.568322 -0.52109802
-1.9599 1.18136 -0.16002101
-0.93731999 0.56498098 -0.48727101
-1.86845 1.12623 -0.101738
-0.97520298 0.587816 -0.47561201
-1.76894 1.06625 -0.047953501
-1.6769201 1.01079 0
-1.11545 0.672351 -0.47404
-1.73127 1.04354 0.046932202
-1.09861 0.66219997 -0.433438
-1.6118 0.97153002 0.087763198
-1.4798 0.89196801 -0.53915298
-1.842 1.1102901 0.15039501
-1.48518 0.89521098 -0.49724999
-1.6799099 1.01258 0.182997
-1.50295 0.905922 -0.459398
-24.0819 14.5157 3.2882299
-1.55507 0.93734097 -0.430224
-1.06353 0.64105803 0.174523
-1.09189 0.65815198 0.20946001
-1.0671999 0.64326698 -0.234773
-1.0571001 0.63717997 0.23255099
-1.28816 0.78197902 -0.893682
-0.95991802 0.58272099 -0.18449301
-1.3623101 0.82699299 -0.89542598
-0.98363602 0.59711999 -0.16171899
-1.39631 0.84763497 -0.86852199
-1.7643 1.07102 -0.24136101
-1.42539 0.86528701 -0.837556
-2.09377 1.2710299 -0.228514
-1.93231 1.17301 -0.158068
-0.93554002 0.56792301 -0.48727101
-1.95883 1.1891201 -0.106862
-0.96704203 0.58704603 -0.47252899
-1.81173 1.09982 -0.049206901
-1.12751 0.684461 -0.51505399
-1.71135 1.03888 0
-1.06995 0.64951998 -0.455571
-1.71602 1.04172 0.046607301
-1.08842 0.66073102 -0.430237
-1.60703 0.97555202 0.087669998
-1.55206 0.942186 -0.566558
-1.83509 1.114 0.150116
-1.49879 0.90984797 -0.50276297
-24.747299 15.0229 2.7009301
-1.51333 0.91867 -0.46345001
-24.0651 14.6088 3.2921801
-1.54547 0.938182 -0.428379
-1.0649 0.646451 0.17508
-0.96323502 0.58473498 -0.23951399
-1.08138 0.65645802 0.207839
-1.05677 0.64151698 -0.232921
-1.06853 0.64865702 0.235513
-1.28289 0.78400397 -0.89164197
-0.95818502 0.585567 -0.18449301
-1.3539 0.82739502 -0.89150703
-0.98355001 0.60106802 -0.16199701
-1.41488 0.86466599 -0.88166797
-1.7611099 1.07625 -0.24136101
-1.42892 0.87324101 -0.84114701
-1.89798 1.1599 -0.20752101
-1.7875201 1.0923899 -0.14648899
-0.938528 0.57355499 -0.48971099
-0.97789299 0.59761202 -0.47869501
-1.89547 1.15836 -0.051574402
-1.76117 1.07629 0
-1.0568 0.645832 -0.45078301
-1.71974 1.05097 0.046792999
-1.0767601 0.65802997 -0.42639601
-1.60583 0.98135698 0.087763198
-1.59488 0.97466302 -0.58323902
-1.84881 1.12984 0.151511
-1.56171 0.95439202 -0.52481401
-24.723 15.1088 2.70316
-1.48748 0.90903199 -0.456359
-24.0606 14.7039 3.2975199
-1.5543 0.94986701 -0.43160701
-1.0629801 0.64960802 0.17508
-1.0760601 0.65760499 0.20719001
-1.04816 0.64055002 -0.23143999
-1.08505 0.66309798 0.23958699
-1.27791 0.78555799 -0.88960201
-0.95664799 0.58807403 -0.18449301
-1.35172 0.83093601 -0.89150703
-0.993783 0.610901 -0.163946
-1.41412 0.86929202 -0.88260698
-1.74306 1.0714999 -0.23927
-1.4631701 0.899441 -0.862692
-1.80163 1.10751 -0.197302
-1.77615 1.09184 -0.14579099
-0.95570099 0.58749199 -0.49947301
-0.98261398 0.60403502 -0.48177901
-1.8226 1.1203901 -0.049671099
-1.4299901 0.87904501 -0.65545797
-1.72256 1.0589 0
